ncols         81
nrows         48
xllcorner     597168
yllcorner     4472456
cellsize      240
NODATA_value  -9999
-9999 -9999 -9999 -9999 -9999 -9999 -9999 -9999 -9999 -9999 -9999 -9999 -9999 -9999 -9999 -9999 908 875 -9999 -9999 -9999 -9999 -9999 -9999 640 590 545 555 -9999 -9999 -9999 -9999 -9999 -9999 -9999 -9999 -9999 -9999 -9999 -9999 -9999 -9999 -9999 -9999 -9999 -9999 -9999 -9999 -9999 -9999 -9999 -9999 -9999 -9999 -9999 -9999 -9999 -9999 -9999 -9999 -9999 -9999 -9999 -9999 -9999 -9999 -9999 -9999 -9999 -9999 -9999 -9999 -9999 -9999 -9999 -9999 -9999 -9999 -9999 -9999 -9999 
-9999 -9999 -9999 -9999 -9999 -9999 -9999 -9999 -9999 -9999 -9999 -9999 -9999 -9999 777 803 850 845 780 -9999 -9999 -9999 663 623 580 555 540 520 535 533 -9999 -9999 -9999 -9999 -9999 -9999 -9999 -9999 -9999 -9999 -9999 -9999 -9999 -9999 -9999 -9999 -9999 -9999 -9999 -9999 -9999 -9999 -9999 -9999 -9999 -9999 -9999 -9999 -9999 -9999 -9999 -9999 -9999 -9999 -9999 -9999 -9999 -9999 -9999 -9999 -9999 -9999 -9999 -9999 -9999 -9999 -9999 -9999 -9999 -9999 -9999 
-9999 -9999 -9999 -9999 -9999 -9999 -9999 -9999 -9999 -9999 -9999 -9999 -9999 768 750 735 800 810 742 752 737 680 640 608 612 590 585 542 500 508 492 507 -9999 -9999 -9999 -9999 -9999 -9999 -9999 -9999 -9999 -9999 -9999 -9999 -9999 -9999 -9999 -9999 -9999 -9999 -9999 -9999 -9999 -9999 -9999 -9999 -9999 -9999 -9999 -9999 -9999 -9999 -9999 -9999 -9999 -9999 -9999 -9999 -9999 -9999 -9999 -9999 -9999 -9999 -9999 -9999 -9999 -9999 -9999 -9999 -9999 
-9999 -9999 -9999 -9999 -9999 -9999 -9999 -9999 -9999 -9999 823 -9999 823 748 700 690 755 768 723 695 710 683 655 645 650 620 568 540 490 465 470 478 463 -9999 -9999 -9999 -9999 -9999 -9999 -9999 -9999 -9999 -9999 -9999 -9999 -9999 -9999 -9999 -9999 -9999 -9999 -9999 -9999 -9999 -9999 -9999 -9999 -9999 -9999 -9999 -9999 -9999 -9999 -9999 -9999 -9999 -9999 -9999 -9999 -9999 -9999 -9999 -9999 -9999 -9999 -9999 -9999 -9999 -9999 -9999 -9999 
-9999 -9999 -9999 -9999 -9999 -9999 -9999 -9999 780 765 815 835 808 733 675 658 682 734 695 662 675 690 700 690 660 620 570 550 510 440 460 445 445 468 498 -9999 -9999 -9999 -9999 -9999 -9999 -9999 -9999 -9999 -9999 -9999 -9999 -9999 -9999 -9999 -9999 -9999 -9999 -9999 -9999 -9999 -9999 -9999 -9999 -9999 -9999 -9999 -9999 -9999 -9999 -9999 -9999 -9999 -9999 -9999 -9999 -9999 -9999 -9999 -9999 -9999 -9999 -9999 -9999 -9999 -9999 
-9999 -9999 -9999 -9999 -9999 -9999 -9999 798 736 730 790 780 760 700 640 615 645 715 710 635 642 655 660 665 680 642 575 520 480 435 425 420 425 440 485 525 -9999 -9999 -9999 -9999 -9999 -9999 -9999 -9999 -9999 -9999 -9999 -9999 -9999 -9999 -9999 -9999 -9999 -9999 -9999 -9999 -9999 -9999 -9999 -9999 -9999 -9999 -9999 -9999 -9999 -9999 -9999 -9999 -9999 -9999 -9999 -9999 -9999 -9999 -9999 -9999 -9999 -9999 -9999 -9999 -9999 
-9999 -9999 -9999 -9999 -9999 -9999 860 795 725 690 735 723 702 660 610 588 632 695 715 634 588 610 615 615 618 620 583 535 465 425 418 408 380 395 430 455 475 515 -9999 -9999 -9999 -9999 -9999 -9999 -9999 -9999 -9999 -9999 -9999 -9999 -9999 -9999 -9999 -9999 -9999 -9999 -9999 -9999 -9999 -9999 -9999 -9999 -9999 -9999 -9999 -9999 -9999 -9999 -9999 -9999 -9999 -9999 -9999 -9999 -9999 -9999 -9999 -9999 -9999 -9999 -9999 
-9999 -9999 -9999 -9999 -9999 838 835 765 746 662 675 665 650 625 588 568 608 677 680 632 570 570 580 570 565 577 568 518 490 450 400 415 410 372 395 410 468 490 -9999 -9999 -9999 -9999 -9999 -9999 -9999 -9999 -9999 -9999 -9999 -9999 -9999 -9999 -9999 -9999 -9999 -9999 -9999 -9999 -9999 -9999 -9999 -9999 -9999 -9999 -9999 -9999 -9999 -9999 -9999 -9999 -9999 -9999 -9999 -9999 -9999 -9999 -9999 -9999 -9999 -9999 -9999 
-9999 -9999 -9999 -9999 -9999 847 782 710 695 645 622 590 583 570 564 550 580 645 657 617 560 530 548 548 545 542 530 480 482 460 400 378 400 385 370 405 450 478 -9999 -9999 -9999 -9999 -9999 -9999 -9999 -9999 -9999 -9999 -9999 -9999 -9999 -9999 -9999 -9999 -9999 -9999 -9999 -9999 -9999 -9999 -9999 -9999 -9999 -9999 -9999 -9999 -9999 -9999 -9999 -9999 -9999 -9999 -9999 -9999 -9999 -9999 -9999 -9999 -9999 -9999 -9999 
-9999 -9999 -9999 -9999 -9999 853 775 698 650 643 628 608 553 537 525 536 570 620 595 578 530 510 535 527 512 505 520 465 430 440 420 407 375 376 368 385 435 462 -9999 -9999 -9999 -9999 -9999 -9999 -9999 -9999 -9999 -9999 -9999 -9999 -9999 -9999 -9999 -9999 -9999 -9999 -9999 -9999 -9999 -9999 -9999 -9999 -9999 -9999 -9999 -9999 -9999 -9999 -9999 -9999 -9999 -9999 -9999 -9999 -9999 -9999 -9999 -9999 -9999 -9999 -9999 
-9999 -9999 -9999 -9999 -9999 872 807 710 665 703 728 660 600 568 533 515 515 545 530 507 480 485 500 512 510 480 500 450 420 390 405 388 395 362 365 420 458 480 -9999 -9999 -9999 495 445 427 450 483 510 520 542 -9999 -9999 -9999 -9999 -9999 -9999 -9999 -9999 -9999 -9999 -9999 -9999 -9999 -9999 -9999 -9999 -9999 -9999 -9999 -9999 -9999 -9999 -9999 -9999 -9999 -9999 -9999 -9999 -9999 -9999 -9999 -9999 
-9999 -9999 -9999 -9999 -9999 845 768 720 715 774 782 703 623 585 540 538 534 500 470 453 455 440 463 490 477 435 445 410 410 415 380 360 355 365 350 410 463 498 500 550 557 520 460 425 439 466 483 504 533 -9999 -9999 -9999 -9999 -9999 -9999 -9999 -9999 -9999 -9999 -9999 -9999 -9999 -9999 -9999 -9999 -9999 -9999 -9999 -9999 -9999 -9999 -9999 -9999 -9999 -9999 -9999 -9999 -9999 -9999 -9999 -9999 
-9999 -9999 -9999 -9999 -9999 903 838 763 760 800 790 708 630 582 557 582 595 593 510 452 410 405 418 440 445 420 380 365 365 370 365 385 370 340 355 395 425 468 503 540 562 510 460 425 435 445 468 495 515 -9999 -9999 -9999 -9999 -9999 -9999 -9999 -9999 -9999 -9999 -9999 -9999 -9999 -9999 -9999 -9999 -9999 -9999 -9999 -9999 -9999 -9999 -9999 -9999 -9999 -9999 -9999 -9999 -9999 -9999 -9999 -9999 
-9999 -9999 -9999 -9999 -9999 915 902 820 825 839 760 685 622 585 580 613 657 640 530 433 415 410 390 390 390 370 365 365 365 365 355 335 325 335 330 360 385 420 465 508 533 495 450 419 410 420 455 468 480 492 -9999 -9999 -9999 -9999 -9999 -9999 -9999 -9999 -9999 -9999 -9999 -9999 -9999 -9999 -9999 -9999 -9999 -9999 -9999 -9999 -9999 -9999 -9999 -9999 -9999 -9999 -9999 -9999 -9999 -9999 -9999 
-9999 -9999 -9999 -9999 -9999 -9999 937 855 870 858 770 670 640 610 605 640 675 620 493 438 460 455 415 400 470 445 443 430 408 418 410 390 340 315 325 325 340 380 417 455 470 482 475 419 380 405 434 440 452 460 475 -9999 -9999 -9999 -9999 -9999 -9999 -9999 -9999 -9999 -9999 -9999 -9999 -9999 -9999 -9999 -9999 -9999 -9999 -9999 -9999 -9999 -9999 -9999 -9999 -9999 -9999 -9999 -9999 -9999 -9999 
-9999 -9999 -9999 -9999 920 906 945 900 915 880 800 720 670 640 655 689 733 610 485 470 485 527 540 555 557 508 485 465 458 445 433 420 378 325 315 345 317 335 375 420 420 445 470 445 405 370 395 403 420 432 440 436 -9999 -9999 -9999 -9999 -9999 -9999 -9999 -9999 -9999 -9999 -9999 -9999 -9999 -9999 -9999 -9999 -9999 -9999 -9999 -9999 -9999 -9999 -9999 -9999 -9999 -9999 -9999 -9999 -9999 
-9999 -9999 -9999 907 880 865 923 870 900 920 850 750 707 680 690 720 755 605 530 560 595 575 600 610 583 540 514 512 508 480 458 433 400 345 303 325 352 315 330 350 408 435 435 423 400 350 350 370 388 405 415 380 375 -9999 -9999 -9999 -9999 -9999 -9999 -9999 -9999 -9999 -9999 -9999 -9999 -9999 -9999 -9999 -9999 -9999 -9999 -9999 -9999 -9999 -9999 -9999 -9999 -9999 -9999 -9999 -9999 
-9999 -9999 980 905 868 827 880 883 860 900 828 778 740 720 740 745 738 562 585 595 615 605 645 648 597 588 560 565 547 525 477 443 395 355 325 298 340 345 302 350 420 453 463 440 417 370 338 332 350 375 390 345 350 -9999 -9999 -9999 -9999 -9999 -9999 -9999 -9999 -9999 -9999 -9999 -9999 -9999 -9999 -9999 -9999 -9999 -9999 -9999 -9999 -9999 -9999 -9999 -9999 -9999 -9999 -9999 -9999 
-9999 -9999 1018 915 863 818 835 830 870 880 800 762 732 707 650 620 593 620 642 638 630 652 685 670 630 620 628 610 586 545 480 450 420 395 368 310 290 325 300 350 375 440 480 485 465 400 365 330 318 330 335 315 350 360 348 -9999 -9999 -9999 -9999 -9999 -9999 -9999 -9999 -9999 -9999 -9999 -9999 -9999 -9999 -9999 -9999 -9999 -9999 -9999 -9999 -9999 -9999 -9999 -9999 -9999 -9999 
-9999 -9999 1030 915 842 805 785 769 810 850 752 693 645 620 620 658 665 690 685 662 660 685 710 700 680 660 680 640 608 550 515 493 448 410 380 330 295 278 278 320 366 412 453 488 480 420 380 355 325 310 295 295 315 308 335 323 302 -9999 282 273 -9999 -9999 -9999 -9999 -9999 -9999 -9999 -9999 -9999 -9999 -9999 -9999 -9999 -9999 -9999 -9999 -9999 -9999 -9999 -9999 -9999 
-9999 1053 1035 930 842 800 777 800 768 725 720 670 630 630 670 750 770 780 752 695 700 730 780 725 712 700 710 660 640 627 570 520 440 405 393 357 340 320 285 278 350 390 420 445 458 438 380 345 340 340 332 310 280 280 280 300 290 290 283 276 270 -9999 -9999 -9999 -9999 -9999 -9999 -9999 -9999 -9999 -9999 -9999 -9999 -9999 -9999 -9999 -9999 -9999 -9999 -9999 -9999 
1068 1020 980 895 826 812 825 858 830 760 680 630 630 660 712 763 825 845 812 740 750 800 820 760 740 740 739 690 685 670 580 540 495 462 438 380 390 355 313 270 307 365 390 365 390 405 360 315 283 333 325 315 325 325 295 268 265 262 277 270 263 273 290 330 320 -9999 -9999 -9999 -9999 -9999 -9999 -9999 -9999 -9999 -9999 -9999 -9999 -9999 -9999 -9999 -9999 
1130 1052 970 890 890 860 865 893 870 785 725 650 682 718 736 803 837 885 852 785 805 860 850 790 765 748 755 720 710 660 610 566 522 480 446 412 410 378 367 310 270 325 325 308 307 325 350 300 265 275 300 325 303 300 315 307 280 240 255 263 270 250 275 310 288 283 -9999 -9999 -9999 -9999 -9999 -9999 -9999 -9999 -9999 -9999 -9999 -9999 -9999 -9999 -9999 
1135 1077 975 963 970 927 905 875 855 798 723 660 710 760 795 845 890 940 880 818 850 910 870 807 765 730 718 680 660 610 565 513 470 445 430 382 368 360 360 325 280 270 270 260 258 255 268 300 260 260 300 326 299 280 270 260 250 243 235 235 240 238 245 258 262 266 262 -9999 -9999 -9999 -9999 -9999 -9999 -9999 -9999 -9999 -9999 -9999 -9999 -9999 -9999 
-9999 1090 1048 1010 1047 965 890 835 795 745 705 668 703 775 844 899 955 996 930 853 880 930 840 775 705 675 630 600 530 535 495 450 410 370 340 310 305 305 305 305 270 255 250 246 240 240 238 238 238 270 320 370 340 312 290 280 270 255 270 237 230 258 235 228 232 258 259 242 240 -9999 -9999 -9999 -9999 -9999 -9999 -9999 -9999 -9999 -9999 -9999 -9999 
-9999 -9999 1072 1071 1050 960 860 815 760 728 705 700 727 765 837 900 958 1015 965 887 920 900 820 770 720 690 640 590 540 490 480 450 420 368 340 333 335 345 355 320 335 360 336 310 295 280 290 270 238 238 262 315 340 340 334 320 294 266 280 245 218 230 225 220 243 237 247 235 230 -9999 -9999 -9999 -9999 -9999 -9999 -9999 -9999 -9999 -9999 -9999 -9999 
-9999 -9999 -9999 -9999 1026 940 873 807 768 770 750 744 778 750 825 885 950 1013 968 915 932 890 815 768 758 725 673 635 555 488 440 413 390 380 368 365 395 390 385 338 360 430 420 370 339 313 333 302 270 245 224 253 290 310 290 335 323 290 293 270 255 215 205 230 263 221 227 208 231 238 -9999 -9999 -9999 -9999 -9999 -9999 -9999 -9999 -9999 -9999 -9999 
-9999 -9999 -9999 -9999 1035 963 878 837 803 818 777 760 823 820 811 856 935 1008 1010 957 945 865 830 800 800 775 700 660 568 515 470 450 440 442 385 390 435 440 395 370 400 470 485 410 380 355 360 360 290 275 245 215 220 240 255 290 270 268 275 290 260 260 227 202 230 220 200 213 220 244 -9999 -9999 -9999 -9999 -9999 -9999 -9999 -9999 -9999 -9999 -9999 
-9999 -9999 -9999 -9999 -9999 1005 950 895 872 845 802 802 856 900 848 883 949 1015 1038 995 970 895 875 835 820 840 780 707 638 550 528 480 438 405 385 407 445 480 435 393 425 487 523 460 445 406 405 410 360 328 290 225 212 205 215 225 217 217 230 250 230 245 256 225 200 200 210 200 227 270 300 299 311 -9999 -9999 -9999 -9999 -9999 -9999 -9999 -9999 
-9999 -9999 -9999 -9999 -9999 1013 1025 950 940 910 843 855 865 908 900 893 950 1010 1068 1038 963 920 912 875 880 868 830 760 685 610 550 478 435 420 440 438 445 485 450 433 445 478 515 540 470 445 455 467 437 370 325 250 235 210 205 205 205 205 205 205 208 230 220 250 248 258 227 188 231 269 266 223 270 -9999 -9999 -9999 -9999 -9999 -9999 -9999 -9999 
-9999 -9999 -9999 -9999 -9999 -9999 1030 1015 998 936 875 882 906 928 928 930 970 1035 1075 1065 1012 968 955 935 938 920 885 800 710 625 542 525 490 470 470 470 468 470 475 465 495 515 530 540 500 490 495 460 408 360 325 270 275 270 228 218 240 236 205 205 205 190 190 176 180 211 198 187 190 220 222 199 236 -9999 -9999 -9999 -9999 -9999 -9999 -9999 -9999 
-9999 -9999 -9999 -9999 -9999 -9999 -9999 -9999 1012 975 -9999 -9999 -9999 -9999 -9999 -9999 -9999 -9999 -9999 1035 1013 1010 973 927 910 900 850 735 665 640 575 548 535 515 488 473 457 450 460 483 497 533 553 563 560 520 485 457 418 387 355 310 284 290 235 250 290 288 280 264 250 198 205 175 170 170 170 184 199 181 170 192 234 229 -9999 -9999 -9999 -9999 -9999 -9999 -9999 
-9999 -9999 -9999 -9999 -9999 -9999 -9999 -9999 -9999 -9999 -9999 -9999 -9999 -9999 -9999 -9999 -9999 -9999 -9999 1005 968 968 940 900 860 850 855 730 640 620 525 490 485 460 438 440 450 442 420 443 462 495 525 545 495 470 445 450 440 407 361 320 318 310 290 293 245 245 245 250 215 214 253 240 203 203 170 170 226 230 197 170 201 200 220 234 -9999 -9999 -9999 -9999 -9999 
-9999 -9999 -9999 -9999 -9999 -9999 -9999 -9999 -9999 -9999 -9999 -9999 -9999 -9999 -9999 -9999 -9999 -9999 -9999 985 925 910 880 855 830 808 807 700 618 578 530 488 460 448 455 428 410 403 395 415 430 460 480 495 460 428 410 420 446 430 380 350 325 294 302 282 255 250 250 220 230 255 282 285 263 235 186 167 214 199 202 175 155 163 198 233 219 -9999 -9999 -9999 -9999 
-9999 -9999 -9999 -9999 -9999 -9999 -9999 -9999 -9999 -9999 -9999 -9999 -9999 -9999 -9999 -9999 -9999 -9999 -9999 -9999 935 880 840 820 785 767 740 650 630 585 550 533 486 500 494 468 463 445 400 390 403 415 434 436 410 395 375 380 428 415 405 403 360 312 265 250 250 250 250 250 235 230 265 313 300 265 233 170 167 162 155 158 148 148 155 182 214 216 -9999 -9999 -9999 
-9999 -9999 -9999 -9999 -9999 -9999 -9999 -9999 -9999 -9999 -9999 -9999 -9999 -9999 -9999 -9999 -9999 -9999 -9999 -9999 905 870 833 788 758 725 700 720 702 675 600 552 537 500 455 435 428 407 400 400 380 376 376 368 355 345 338 328 328 380 360 335 325 265 268 285 284 280 245 235 238 220 255 275 285 263 214 180 188 184 174 155 170 152 147 147 180 175 180 -9999 -9999 
-9999 -9999 -9999 -9999 -9999 -9999 -9999 -9999 -9999 -9999 -9999 -9999 -9999 -9999 -9999 -9999 -9999 -9999 -9999 -9999 -9999 -9999 860 825 775 760 760 805 780 715 660 595 538 480 455 460 438 445 468 485 483 480 395 405 400 370 370 385 330 300 290 283 278 270 295 327 325 325 308 280 285 268 215 220 220 248 220 202 231 214 175 161 188 190 159 145 142 144 144 131 124 
-9999 -9999 -9999 -9999 -9999 -9999 -9999 -9999 -9999 -9999 -9999 -9999 -9999 -9999 -9999 -9999 -9999 -9999 -9999 -9999 -9999 -9999 -9999 860 852 825 825 838 845 750 655 583 520 485 490 532 526 519 500 508 504 470 398 450 450 430 438 465 425 355 325 313 270 303 330 358 360 362 340 320 317 318 270 203 198 186 186 185 177 173 173 185 195 180 187 178 150 140 138 135 130 
-9999 -9999 -9999 -9999 -9999 -9999 -9999 -9999 -9999 -9999 -9999 -9999 -9999 -9999 -9999 -9999 -9999 -9999 -9999 -9999 -9999 -9999 -9999 -9999 -9999 -9999 -9999 826 760 736 653 582 568 560 573 575 550 520 473 460 450 434 418 480 502 483 482 505 482 440 367 343 320 364 386 386 388 390 370 358 340 290 268 240 215 206 226 218 204 213 208 203 197 178 170 170 160 145 143 145 168 
-9999 -9999 -9999 -9999 -9999 -9999 -9999 -9999 -9999 -9999 -9999 -9999 -9999 -9999 -9999 -9999 -9999 -9999 -9999 -9999 -9999 -9999 -9999 -9999 -9999 -9999 -9999 808 743 691 655 626 625 582 588 584 533 495 473 465 480 477 462 493 526 543 545 550 535 477 410 388 327 378 415 418 419 415 395 383 352 325 305 270 225 225 264 253 240 241 226 208 185 178 185 181 154 160 148 150 170 
-9999 -9999 -9999 -9999 -9999 -9999 -9999 -9999 -9999 -9999 -9999 -9999 -9999 -9999 -9999 -9999 -9999 -9999 -9999 -9999 -9999 -9999 -9999 -9999 -9999 -9999 -9999 800 775 748 708 670 630 625 637 606 552 514 516 518 531 528 514 503 545 580 607 612 575 490 456 430 357 404 437 450 440 440 420 397 372 345 307 278 237 260 265 245 235 233 218 206 190 188 194 182 168 162 168 156 -9999 
-9999 -9999 -9999 -9999 -9999 -9999 -9999 -9999 -9999 -9999 -9999 -9999 -9999 -9999 -9999 -9999 -9999 -9999 -9999 -9999 -9999 -9999 -9999 -9999 -9999 -9999 -9999 -9999 815 805 765 698 660 673 660 600 565 570 553 545 -9999 -9999 547 534 -9999 -9999 -9999 647 624 524 476 430 372 415 455 477 475 470 440 406 360 300 290 270 260 275 261 240 230 208 226 208 208 203 197 193 194 190 182 156 -9999 
-9999 -9999 -9999 -9999 -9999 -9999 -9999 -9999 -9999 -9999 -9999 -9999 -9999 -9999 -9999 -9999 -9999 -9999 -9999 -9999 -9999 -9999 -9999 -9999 -9999 -9999 -9999 -9999 -9999 875 810 740 740 706 660 648 622 -9999 -9999 -9999 -9999 -9999 -9999 -9999 -9999 -9999 -9999 -9999 613 550 489 455 400 443 482 514 507 490 455 406 383 355 332 280 283 290 265 242 213 208 192 190 190 185 178 190 182 182 173 156 192 
-9999 -9999 -9999 -9999 -9999 -9999 -9999 -9999 -9999 -9999 -9999 -9999 -9999 -9999 -9999 -9999 -9999 -9999 -9999 -9999 -9999 -9999 -9999 -9999 -9999 -9999 -9999 -9999 -9999 890 820 790 790 728 -9999 -9999 -9999 -9999 -9999 -9999 -9999 -9999 -9999 -9999 -9999 -9999 -9999 -9999 -9999 572 517 463 438 480 518 523 537 505 455 416 384 335 325 308 308 284 244 232 225 210 203 208 190 200 185 173 167 167 160 163 188 
-9999 -9999 -9999 -9999 -9999 -9999 -9999 -9999 -9999 -9999 -9999 -9999 -9999 -9999 -9999 -9999 -9999 -9999 -9999 -9999 -9999 -9999 -9999 -9999 -9999 -9999 -9999 -9999 -9999 895 873 835 801 -9999 -9999 -9999 -9999 -9999 -9999 -9999 -9999 -9999 -9999 -9999 -9999 -9999 -9999 -9999 -9999 545 525 490 475 505 535 555 542 507 465 418 400 375 345 335 323 292 275 260 227 213 208 216 203 202 192 192 185 188 175 180 200 
-9999 -9999 -9999 -9999 -9999 -9999 -9999 -9999 -9999 -9999 -9999 -9999 -9999 -9999 -9999 -9999 -9999 -9999 -9999 -9999 -9999 -9999 -9999 -9999 -9999 -9999 -9999 -9999 -9999 -9999 912 859 -9999 -9999 -9999 -9999 -9999 -9999 -9999 -9999 -9999 -9999 -9999 -9999 -9999 -9999 -9999 -9999 -9999 -9999 538 511 495 517 540 568 539 507 465 440 418 400 382 -9999 -9999 -9999 -9999 270 242 234 219 223 208 212 212 206 -9999 -9999 -9999 204 -9999 
-9999 -9999 -9999 -9999 -9999 -9999 -9999 -9999 -9999 -9999 -9999 -9999 -9999 -9999 -9999 -9999 -9999 -9999 -9999 -9999 -9999 -9999 -9999 -9999 -9999 -9999 -9999 -9999 -9999 -9999 940 -9999 -9999 -9999 -9999 -9999 -9999 -9999 -9999 -9999 -9999 -9999 -9999 -9999 -9999 -9999 -9999 -9999 -9999 -9999 -9999 531 510 535 550 570 545 509 -9999 -9999 -9999 -9999 -9999 -9999 -9999 -9999 -9999 -9999 -9999 -9999 -9999 224 220 222 -9999 -9999 -9999 -9999 -9999 -9999 -9999 
-9999 -9999 -9999 -9999 -9999 -9999 -9999 -9999 -9999 -9999 -9999 -9999 -9999 -9999 -9999 -9999 -9999 -9999 -9999 -9999 -9999 -9999 -9999 -9999 -9999 -9999 -9999 -9999 -9999 -9999 -9999 -9999 -9999 -9999 -9999 -9999 -9999 -9999 -9999 -9999 -9999 -9999 -9999 -9999 -9999 -9999 -9999 -9999 -9999 -9999 -9999 -9999 -9999 -9999 -9999 -9999 564 -9999 -9999 -9999 -9999 -9999 -9999 -9999 -9999 -9999 -9999 -9999 -9999 -9999 -9999 -9999 -9999 -9999 -9999 -9999 -9999 -9999 -9999 -9999 -9999 
